# .PCD v.7 - Point Cloud Data file format
VERSION .7
FIELDS x y z
SIZE 4 4 4
TYPE F F F
COUNT 1 1 1
WIDTH 2126
HEIGHT 1
VIEWPOINT 0 0 0 1 0 0 0
POINTS 2126
DATA ascii
3.9307 -0.5370 2.4475
3.9307 -0.5330 2.4476
3.9307 -0.5290 2.4506
3.9307 -0.5250 2.4506
3.9307 -0.5210 2.4536
3.9307 -0.5170 2.4536
3.9307 -0.5130 2.4536
3.9307 -0.5090 2.4536
3.9307 -0.5050 2.4536
3.9307 -0.5010 2.4536
3.9307 -0.4970 2.4536
3.9307 -0.4930 2.4536
3.9307 -0.4890 2.4536
3.9307 -0.4850 2.4566
3.9307 -0.4810 2.4566
3.9307 -0.4770 2.4597
3.9307 -0.4730 2.4597
3.9307 -0.4690 2.4597
3.9307 -0.4650 2.4597
3.9307 -0.4610 2.4597
3.9307 -0.4570 2.4597
3.9307 -0.4530 2.4597
3.9307 -0.4490 2.4597
3.9307 -0.4450 2.4597
3.9307 -0.4410 2.4597
3.9307 -0.4370 2.4597
3.9307 -0.4330 2.4597
3.9307 -0.4290 2.4627
3.9307 -0.4250 2.4628
3.9307 -0.4210 2.4628
3.9307 -0.4170 2.4628
3.9307 -0.4130 2.4598
3.9307 -0.4090 2.4598
3.9307 -0.4050 2.4598
3.9307 -0.4010 2.4598
3.9307 -0.3970 2.4598
3.9307 -0.3930 2.4568
3.9307 -0.3890 2.4568
3.9307 -0.3850 2.4568
3.9307 -0.3810 2.4568
3.9307 -0.3770 2.4568
3.9307 -0.3730 2.4569
3.9307 -0.3690 2.4599
3.9307 -0.3650 2.4599
3.9307 -0.3610 2.4629
3.9307 -0.3570 2.4659
3.9307 -0.3530 2.4659
3.9307 -0.3490 2.4689
3.9307 -0.3450 2.4689
3.9307 -0.3410 2.4719
3.9307 -0.3370 2.4719
3.9307 -0.3330 2.4749
3.9307 -0.3290 2.4749
3.9307 -0.3250 2.4779
3.9307 -0.3210 2.4779
3.9307 -0.3170 2.4780
3.9307 -0.3130 2.4780
3.9307 -0.3090 2.4780
3.9307 -0.3050 2.4780
3.9307 -0.3010 2.4750
3.9307 -0.2970 2.4720
3.9307 -0.2930 2.4660
3.9307 -0.2890 2.4630
3.9307 -0.2850 2.4630
3.9307 0.2830 2.4671
3.9307 0.2870 2.4671
3.9307 0.2910 2.4701
3.9307 0.2950 2.4701
3.9307 0.2990 2.4731
3.9307 0.3030 2.4731
3.9307 0.3070 2.4731
3.9307 0.3110 2.4731
3.9307 0.3150 2.4761
3.9307 0.3190 2.4761
3.9307 0.3230 2.4761
3.9307 0.3270 2.4732
3.9307 0.3310 2.4762
3.9307 0.3350 2.4762
3.9307 0.3390 2.4732
3.9307 0.3430 2.4732
3.9307 0.3470 2.4702
3.9307 0.3510 2.4702
3.9307 0.3550 2.4672
3.9307 0.3590 2.4612
3.9307 0.3630 2.4642
3.9307 0.3670 2.4612
3.9307 0.3710 2.4612
3.9307 0.3750 2.4612
3.9307 0.3790 2.4613
3.9307 0.3830 2.4583
3.9307 0.3870 2.4583
3.9307 0.3910 2.4583
3.9307 0.3950 2.4553
3.9307 0.3990 2.4583
3.9307 0.4030 2.4583
3.9307 0.4070 2.4583
3.9307 0.4110 2.4553
3.9307 0.4150 2.4553
3.9307 0.4190 2.4553
3.9307 0.4230 2.4523
3.9307 0.4270 2.4553
3.9307 0.4310 2.4554
3.9307 0.4350 2.4554
3.9307 0.4390 2.4584
3.9307 0.4430 2.4584
3.9307 0.4470 2.4584
3.9307 0.4510 2.4584
3.9307 0.4550 2.4584
3.9307 0.4590 2.4554
3.9307 0.4630 2.4584
3.9307 0.4670 2.4554
3.9307 0.4710 2.4554
3.9307 0.4750 2.4554
3.9307 0.4790 2.4554
3.9307 0.4830 2.4554
3.9307 0.4870 2.4555
3.9307 0.4910 2.4555
3.9307 0.4950 2.4585
3.9307 0.4990 2.4555
3.9307 0.5030 2.4555
3.9307 0.5070 2.4555
3.9307 0.5110 2.4555
3.9307 0.5150 2.4555
3.9307 0.5190 2.4525
3.9307 0.5230 2.4525
3.9307 0.5270 2.4495
3.9307 0.5310 2.4495
3.9307 0.5350 2.4495
3.9307 0.5390 2.4496
3.9307 0.5430 2.4466
3.9307 0.5470 2.4496
3.9307 0.5510 2.4466
3.9307 0.5550 2.4466
3.9307 0.5590 2.4466
3.9307 0.5630 2.4436
3.9307 0.5670 2.4436
3.9307 0.5710 2.4436
3.9307 0.5750 2.4406
3.9307 0.5790 2.4406
3.9307 0.5830 2.4406
3.9307 0.5870 2.4406
3.9307 0.5910 2.4376
3.9307 0.5950 2.4377
3.9307 0.5990 2.4347
3.9307 0.6030 2.4377
3.9307 0.6070 2.4347
3.9307 0.6110 2.4347
3.9307 0.6150 2.4317
3.9307 0.6190 2.4317
3.9307 0.6230 2.4317
3.9307 0.6270 2.4317
3.9307 0.6310 2.4317
3.9307 0.6350 2.4287
3.9307 0.6390 2.4287
3.9307 0.6430 2.4247
3.9307 0.6470 2.4248
3.9307 0.6510 2.4248
3.9307 0.6550 2.4218
3.9307 0.6590 2.4188
3.9307 0.6630 2.4188
3.8897 -0.7930 2.4041
3.8897 -0.7890 2.4041
3.8897 -0.7850 2.4041
3.8897 -0.7810 2.4071
3.8897 -0.7770 2.4071
3.8897 -0.7730 2.4102
3.8897 -0.7690 2.4072
3.8897 -0.7650 2.4072
3.8897 -0.7610 2.4072
3.8897 -0.7570 2.4072
3.8897 -0.7530 2.4072
3.8897 -0.7490 2.4072
3.8897 -0.7450 2.4072
3.8897 -0.7410 2.4072
3.8897 -0.7370 2.4072
3.8897 -0.7330 2.4042
3.8897 -0.7290 2.4072
3.8897 -0.7250 2.4072
3.8897 -0.7210 2.4072
3.8897 -0.7170 2.4103
3.8897 -0.7130 2.4103
3.8897 -0.7090 2.4133
3.8897 -0.7050 2.4133
3.8897 -0.7010 2.4133
3.8897 -0.6970 2.4163
3.8897 -0.6930 2.4163
3.8897 -0.6890 2.4163
3.8897 -0.6850 2.4193
3.8897 -0.6810 2.4223
3.8897 -0.6770 2.4223
3.8897 -0.6730 2.4223
3.8897 -0.6690 2.4223
3.8897 -0.6650 2.4264
3.8897 -0.6610 2.4264
3.8897 -0.6570 2.4294
3.8897 -0.6530 2.4294
3.8897 -0.6490 2.4324
3.8897 -0.6450 2.4324
3.8897 -0.6410 2.4354
3.8897 -0.6370 2.4354
3.8897 -0.6330 2.4354
3.8897 -0.6290 2.4354
3.8897 -0.6250 2.4354
3.8897 -0.6210 2.4384
3.8897 -0.6170 2.4384
3.8897 -0.6130 2.4414
3.8897 -0.6090 2.4415
3.8897 -0.6050 2.4445
3.8897 -0.6010 2.4475
3.8897 -0.5970 2.4445
3.8897 -0.5930 2.4445
3.8897 -0.5890 2.4445
3.8897 -0.5850 2.4445
3.8897 -0.5810 2.4445
3.8897 -0.5770 2.4445
3.8897 -0.5730 2.4445
3.8897 -0.5690 2.4475
3.8897 -0.5650 2.4475
3.8897 -0.5610 2.4505
3.8897 -0.5570 2.4476
3.8897 -0.5530 2.4476
3.8897 -0.5490 2.4476
3.8897 -0.5450 2.4476
3.8897 -0.5410 2.4476
3.8897 -0.5370 2.4476
3.8897 -0.5330 2.4476
3.8897 -0.5290 2.4476
3.8897 -0.5250 2.4506
3.8897 -0.5210 2.4476
3.8897 -0.5170 2.4476
3.8897 -0.5130 2.4476
3.8897 -0.5090 2.4476
3.8897 -0.5050 2.4447
3.8897 -0.5010 2.4447
3.8897 -0.4970 2.4447
3.8897 -0.4930 2.4477
3.8897 -0.4890 2.4477
3.8897 -0.4850 2.4477
3.8897 -0.4810 2.4507
3.8897 -0.4770 2.4507
3.8897 -0.4730 2.4507
3.8897 -0.4690 2.4507
3.8897 -0.4650 2.4507
3.8897 -0.4610 2.4507
3.8897 -0.4570 2.4537
3.8897 -0.4530 2.4537
3.8897 -0.4490 2.4538
3.8897 -0.4450 2.4568
3.8897 -0.4410 2.4598
3.8897 -0.4370 2.4598
3.8897 -0.4330 2.4628
3.8897 -0.4290 2.4658
3.8897 -0.4250 2.4658
3.8897 -0.4210 2.4658
3.8897 -0.4170 2.4688
3.8897 0.4190 2.4644
3.8897 0.4230 2.4674
3.8897 0.4270 2.4704
3.8897 0.4310 2.4704
3.8897 0.4350 2.4704
3.8897 0.4390 2.4704
3.8897 0.4430 2.4674
3.8897 0.4470 2.4674
3.8897 0.4510 2.4644
3.8897 0.4550 2.4614
3.8897 0.4590 2.4614
3.8897 0.4630 2.4585
3.8897 0.4670 2.4585
3.8897 0.4710 2.4585
3.8897 0.4750 2.4555
3.8897 0.4790 2.4555
3.8897 0.4830 2.4525
3.8897 0.4870 2.4525
3.8897 0.4910 2.4495
3.8897 0.4950 2.4495
3.8897 0.4990 2.4495
3.8897 0.5030 2.4495
3.8897 0.5070 2.4495
3.8897 0.5110 2.4495
3.8897 0.5150 2.4526
3.8897 0.5190 2.4526
3.8897 0.5230 2.4496
3.8897 0.5270 2.4496
3.8897 0.5310 2.4496
3.8897 0.5350 2.4466
3.8897 0.5390 2.4466
3.8897 0.5430 2.4436
3.8897 0.5470 2.4466
3.8897 0.5510 2.4406
3.8897 0.5550 2.4406
3.8897 0.5590 2.4406
3.8897 0.5630 2.4406
3.8897 0.5670 2.4377
3.8897 0.5710 2.4407
3.8897 0.5750 2.4407
3.8897 0.5790 2.4377
3.8897 0.5830 2.4377
3.8897 0.5870 2.4377
3.8897 0.5910 2.4377
3.8897 0.5950 2.4377
3.8897 0.5990 2.4407
3.8897 0.6030 2.4377
3.8897 0.6070 2.4407
3.8897 0.6110 2.4407
3.8897 0.6150 2.4407
3.8897 0.6190 2.4407
3.8897 0.6230 2.4408
3.8897 0.6270 2.4408
3.8897 0.6310 2.4378
3.8897 0.6350 2.4378
3.8897 0.6390 2.4348
3.8897 0.6430 2.4348
3.8897 0.6470 2.4318
3.8897 0.6510 2.4288
3.8897 0.6550 2.4288
3.8897 0.6590 2.4248
3.8897 0.6630 2.4248
3.8897 0.6670 2.4248
3.8897 0.6710 2.4248
3.8897 0.6750 2.4249
3.8897 0.6790 2.4249
3.8897 0.6830 2.4219
3.8897 0.6870 2.4219
3.8897 0.6910 2.4189
3.8897 0.6950 2.4159
3.8897 0.6990 2.4129
3.8897 0.7030 2.4129
3.8897 0.7070 2.4129
3.8897 0.7110 2.4069
3.8897 0.7150 2.4069
3.8897 0.7190 2.4069
3.8897 0.7230 2.4039
3.8897 0.7270 2.4039
3.8497 -0.8250 2.4191
3.8497 -0.8210 2.4161
3.8497 -0.8170 2.4161
3.8497 -0.8130 2.4131
3.8497 -0.8090 2.4101
3.8497 -0.8050 2.4101
3.8497 -0.8010 2.4071
3.8497 -0.7970 2.4072
3.8497 -0.7930 2.4072
3.8497 -0.7890 2.4042
3.8497 -0.7850 2.4042
3.8497 -0.7810 2.4042
3.8497 -0.7770 2.4042
3.8497 -0.7730 2.4042
3.8497 -0.7690 2.4042
3.8497 -0.7650 2.4042
3.8497 -0.7610 2.4042
3.8497 -0.7570 2.4042
3.8497 -0.7530 2.4072
3.8497 -0.7490 2.4072
3.8497 -0.7450 2.4102
3.8497 -0.7410 2.4103
3.8497 -0.7370 2.4133
3.8497 -0.7330 2.4133
3.8497 -0.7290 2.4133
3.8497 -0.7250 2.4163
3.8497 -0.7210 2.4163
3.8497 -0.7170 2.4163
3.8497 -0.7130 2.4193
3.8497 -0.7090 2.4193
3.8497 -0.7050 2.4223
3.8497 -0.7010 2.4223
3.8497 -0.6970 2.4223
3.8497 -0.6930 2.4263
3.8497 -0.6890 2.4294
3.8497 -0.6850 2.4324
3.8497 -0.6810 2.4354
3.8497 -0.6770 2.4354
3.8497 -0.6730 2.4354
3.8497 -0.6690 2.4354
3.8497 -0.6650 2.4354
3.8497 -0.6610 2.4354
3.8497 -0.6570 2.4354
3.8497 -0.6530 2.4354
3.8497 -0.6490 2.4354
3.8497 -0.6450 2.4354
3.8497 -0.6410 2.4354
3.8497 -0.6370 2.4355
3.8497 -0.6330 2.4385
3.8497 -0.6290 2.4385
3.8497 -0.6250 2.4415
3.8497 -0.6210 2.4415
3.8497 -0.6170 2.4415
3.8497 -0.6130 2.4415
3.8497 -0.6090 2.4445
3.8497 -0.6050 2.4445
3.8497 -0.6010 2.4445
3.8497 -0.5970 2.4445
3.8497 -0.5930 2.4415
3.8497 -0.5890 2.4415
3.8497 -0.5850 2.4415
3.8497 -0.5810 2.4446
3.8497 -0.5770 2.4416
3.8497 -0.5730 2.4416
3.8497 -0.5690 2.4416
3.8497 -0.5650 2.4416
3.8497 -0.5610 2.4386
3.8497 -0.5570 2.4386
3.8497 -0.5530 2.4386
3.8497 -0.5490 2.4416
3.8497 -0.5450 2.4416
3.8497 -0.5410 2.4446
3.8497 -0.5370 2.4446
3.8497 -0.5330 2.4476
3.8497 0.5310 2.4496
3.8497 0.5350 2.4496
3.8497 0.5390 2.4466
3.8497 0.5430 2.4467
3.8497 0.5470 2.4437
3.8497 0.5510 2.4407
3.8497 0.5550 2.4377
3.8497 0.5590 2.4377
3.8497 0.5630 2.4347
3.8497 0.5670 2.4347
3.8497 0.5710 2.4317
3.8497 0.5750 2.4347
3.8497 0.5790 2.4347
3.8497 0.5830 2.4377
3.8497 0.5870 2.4377
3.8497 0.5910 2.4407
3.8497 0.5950 2.4407
3.8497 0.5990 2.4408
3.8497 0.6030 2.4408
3.8497 0.6070 2.4408
3.8497 0.6110 2.4378
3.8497 0.6150 2.4378
3.8497 0.6190 2.4378
3.8497 0.6230 2.4348
3.8497 0.6270 2.4348
3.8497 0.6310 2.4318
3.8497 0.6350 2.4318
3.8497 0.6390 2.4318
3.8497 0.6430 2.4318
3.8497 0.6470 2.4318
3.8497 0.6510 2.4319
3.8497 0.6550 2.4289
3.8497 0.6590 2.4319
3.8497 0.6630 2.4289
3.8497 0.6670 2.4319
3.8497 0.6710 2.4289
3.8497 0.6750 2.4249
3.8497 0.6790 2.4249
3.8497 0.6830 2.4249
3.8497 0.6870 2.4219
3.8497 0.6910 2.4219
3.8497 0.6950 2.4219
3.8497 0.6990 2.4219
3.8497 0.7030 2.4219
3.8497 0.7070 2.4220
3.8497 0.7110 2.4220
3.8497 0.7150 2.4190
3.8497 0.7190 2.4190
3.8497 0.7230 2.4160
3.8497 0.7270 2.4160
3.8497 0.7310 2.4160
3.8497 0.7350 2.4160
3.8497 0.7390 2.4160
3.8497 0.7430 2.4130
3.8497 0.7470 2.4130
3.8497 0.7510 2.4100
3.8497 0.7550 2.4070
3.8497 0.7590 2.4071
3.8497 0.7630 2.4041
3.8497 0.7670 2.4011
3.8497 0.7710 2.3981
3.8497 0.7750 2.3951
3.8497 0.7790 2.3951
3.8497 0.7830 2.3921
3.8497 0.7870 2.3891
3.8097 -0.8570 2.3831
3.8097 -0.8530 2.3891
3.8097 -0.8490 2.3921
3.8097 -0.8450 2.3951
3.8097 -0.8410 2.3951
3.8097 -0.8370 2.4041
3.8097 -0.8330 2.4041
3.8097 -0.8290 2.3951
3.8097 -0.8250 2.3861
3.8097 -0.8210 2.3922
3.8097 -0.8170 2.4072
3.8097 -0.8130 2.3982
3.8097 -0.8090 2.3862
3.8097 -0.8050 2.3982
3.8097 -0.8010 2.4012
3.8097 -0.7970 2.4042
3.8097 -0.7930 2.4042
3.8097 -0.7890 2.4012
3.8097 -0.7850 2.4042
3.8097 -0.7810 2.4072
3.8097 -0.7770 2.4072
3.8097 -0.7730 2.4072
3.8097 -0.7690 2.4102
3.8097 -0.7650 2.4133
3.8097 -0.7610 2.4133
3.8097 -0.7570 2.4133
3.8097 -0.7530 2.4163
3.8097 -0.7490 2.4193
3.8097 -0.7450 2.4163
3.8097 -0.7410 2.4163
3.8097 -0.7370 2.4223
3.8097 -0.7330 2.4223
3.8097 -0.7290 2.4223
3.8097 -0.7250 2.4223
3.8097 -0.7210 2.4263
3.8097 -0.7170 2.4263
3.8097 -0.7130 2.4264
3.8097 -0.7090 2.4264
3.8097 -0.7050 2.4264
3.8097 -0.7010 2.4264
3.8097 -0.6970 2.4264
3.8097 -0.6930 2.4264
3.8097 -0.6890 2.4294
3.8097 -0.6850 2.4294
3.8097 -0.6810 2.4354
3.8097 -0.6770 2.4194
3.8097 -0.6730 2.4164
3.8097 -0.6690 2.4194
3.8097 -0.6650 2.4354
3.8097 -0.6610 2.4195
3.8097 -0.6570 2.4135
3.8097 -0.6530 2.4295
3.8097 -0.6490 2.4165
3.8097 -0.6450 2.4265
3.8097 -0.6410 2.4225
3.8097 -0.6370 2.4295
3.8097 -0.6330 2.4295
3.8097 -0.6290 2.4295
3.8097 -0.6250 2.4295
3.8097 -0.6210 2.4295
3.8097 -0.6170 2.4325
3.8097 -0.6130 2.4355
3.8097 -0.6090 2.4355
3.8097 -0.6050 2.4386
3.8097 -0.6010 2.4416
3.8097 -0.5970 2.4446
3.8097 0.5990 2.4408
3.8097 0.6030 2.4408
3.8097 0.6070 2.4408
3.8097 0.6110 2.4378
3.8097 0.6150 2.4378
3.8097 0.6190 2.4348
3.8097 0.6230 2.4348
3.8097 0.6270 2.4289
3.8097 0.6310 2.4289
3.8097 0.6350 2.4249
3.8097 0.6390 2.4249
3.8097 0.6430 2.4219
3.8097 0.6470 2.4249
3.8097 0.6510 2.4249
3.8097 0.6550 2.4289
3.8097 0.6590 2.4289
3.8097 0.6630 2.4159
3.8097 0.6670 2.4219
3.8097 0.6710 2.4289
3.8097 0.6750 2.4159
3.8097 0.6790 2.4220
3.8097 0.6830 2.4190
3.8097 0.6870 2.4190
3.8097 0.6910 2.4220
3.8097 0.6950 2.4130
3.8097 0.6990 2.4160
3.8097 0.7030 2.4220
3.8097 0.7070 2.4190
3.8097 0.7110 2.4160
3.8097 0.7150 2.4160
3.8097 0.7190 2.4160
3.8097 0.7230 2.4160
3.8097 0.7270 2.4130
3.8097 0.7310 2.4130
3.8097 0.7350 2.4131
3.8097 0.7390 2.4131
3.8097 0.7430 2.4131
3.8097 0.7470 2.4101
3.8097 0.7510 2.4131
3.8097 0.7550 2.4101
3.8097 0.7590 2.4071
3.8097 0.7630 2.4041
3.8097 0.7670 2.4041
3.8097 0.7710 2.4071
3.8097 0.7750 2.4041
3.8097 0.7790 2.4041
3.8097 0.7830 2.4011
3.8097 0.7870 2.4042
3.8097 0.7910 2.4012
3.8097 0.7950 2.4042
3.8097 0.7990 2.4012
3.8097 0.8030 2.3982
3.8097 0.8070 2.3982
3.8097 0.8110 2.3952
3.8097 0.8150 2.3832
3.8097 0.8190 2.3892
3.8097 0.8230 2.3892
3.8097 0.8270 2.3832
3.8097 0.8310 2.3742
3.7697 -0.8650 2.3641
3.7697 -0.8610 2.3711
3.7697 -0.8570 2.3771
3.7697 -0.8530 2.3831
3.7697 -0.8490 2.3861
3.7697 -0.8450 2.3862
3.7697 -0.8410 2.3892
3.7697 -0.8370 2.3892
3.7697 -0.8330 2.3922
3.7697 -0.8290 2.3922
3.7697 -0.8250 2.3952
3.7697 -0.8210 2.3952
3.7697 -0.8170 2.3982
3.7697 -0.8130 2.3982
3.7697 -0.8090 2.4012
3.7697 -0.8050 2.4012
3.7697 -0.8010 2.4012
3.7697 -0.7970 2.4012
3.7697 -0.7930 2.4043
3.7697 -0.7890 2.4043
3.7697 -0.7850 2.4043
3.7697 -0.7810 2.4073
3.7697 -0.7770 2.4073
3.7697 -0.7730 2.4073
3.7697 -0.7690 2.4073
3.7697 -0.7650 2.4073
3.7697 -0.7610 2.4103
3.7697 -0.7570 2.4133
3.7697 -0.7530 2.4133
3.7697 -0.7490 2.4163
3.7697 -0.7450 2.4163
3.7697 -0.7410 2.4163
3.7697 -0.7370 2.4194
3.7697 -0.7330 2.4164
3.7697 -0.7290 2.4194
3.7697 -0.7250 2.4194
3.7697 -0.7210 2.4194
3.7697 -0.7170 2.4194
3.7697 -0.7130 2.4224
3.7697 -0.7090 2.4224
3.7697 -0.7050 2.4224
3.7697 -0.7010 2.4224
3.7697 -0.6970 2.4194
3.7697 -0.6930 2.4194
3.7697 -0.6890 2.4194
3.7697 -0.6850 2.4195
3.7697 -0.6810 2.4195
3.7697 -0.6770 2.4195
3.7697 -0.6730 2.4225
3.7697 -0.6690 2.4225
3.7697 -0.6650 2.4225
3.7697 0.6630 2.4320
3.7697 0.6670 2.4290
3.7697 0.6710 2.4220
3.7697 0.6750 2.4190
3.7697 0.6790 2.4160
3.7697 0.6830 2.4160
3.7697 0.6870 2.4160
3.7697 0.6910 2.4160
3.7697 0.6950 2.4160
3.7697 0.6990 2.4190
3.7697 0.7030 2.4190
3.7697 0.7070 2.4220
3.7697 0.7110 2.4221
3.7697 0.7150 2.4221
3.7697 0.7190 2.4221
3.7697 0.7230 2.4221
3.7697 0.7270 2.4221
3.7697 0.7310 2.4161
3.7697 0.7350 2.4161
3.7697 0.7390 2.4161
3.7697 0.7430 2.4131
3.7697 0.7470 2.4101
3.7697 0.7510 2.4131
3.7697 0.7550 2.4101
3.7697 0.7590 2.4101
3.7697 0.7630 2.4102
3.7697 0.7670 2.4102
3.7697 0.7710 2.4102
3.7697 0.7750 2.4102
3.7697 0.7790 2.4102
3.7697 0.7830 2.4102
3.7697 0.7870 2.4072
3.7697 0.7910 2.4042
3.7697 0.7950 2.4042
3.7697 0.7990 2.4012
3.7697 0.8030 2.4012
3.7697 0.8070 2.3982
3.7697 0.8110 2.3982
3.7697 0.8150 2.3952
3.7697 0.8190 2.3953
3.7697 0.8230 2.3923
3.7697 0.8270 2.3923
3.7697 0.8310 2.3923
3.7697 0.8350 2.3893
3.7697 0.8390 2.3923
3.7697 0.8430 2.3923
3.7697 0.8470 2.3923
3.7697 0.8510 2.3893
3.7697 0.8550 2.3863
3.7697 0.8590 2.3863
3.7697 0.8630 2.3863
3.7697 0.8670 2.3833
3.7697 0.8710 2.3804
3.7697 0.8750 2.3774
3.7697 0.8790 2.3774
3.7697 0.8830 2.3744
3.7697 0.8870 2.3744
3.7697 0.8910 2.3714
3.7697 0.8950 2.3714
3.7297 -0.9530 2.3580
3.7297 -0.9490 2.3580
3.7297 -0.9450 2.3550
3.7297 -0.9410 2.3520
3.7297 -0.9370 2.3490
3.7297 -0.9330 2.3520
3.7297 -0.9290 2.3490
3.7297 -0.9250 2.3490
3.7297 -0.9210 2.3521
3.7297 -0.9170 2.3521
3.7297 -0.9130 2.3521
3.7297 -0.9090 2.3551
3.7297 -0.9050 2.3551
3.7297 -0.9010 2.3611
3.7297 -0.8970 2.3641
3.7297 -0.8930 2.3711
3.7297 -0.8890 2.3771
3.7297 -0.8850 2.3801
3.7297 -0.8810 2.3831
3.7297 -0.8770 2.3861
3.7297 -0.8730 2.3861
3.7297 -0.8690 2.3892
3.7297 -0.8650 2.3892
3.7297 -0.8610 2.3922
3.7297 -0.8570 2.3922
3.7297 -0.8530 2.3952
3.7297 -0.8490 2.3952
3.7297 -0.8450 2.3982
3.7297 -0.8410 2.3982
3.7297 -0.8370 2.3982
3.7297 -0.8330 2.4012
3.7297 -0.8290 2.4012
3.7297 -0.8250 2.4012
3.7297 -0.8210 2.4042
3.7297 -0.8170 2.4043
3.7297 -0.8130 2.4043
3.7297 -0.8090 2.4043
3.7297 -0.8050 2.4073
3.7297 -0.8010 2.4073
3.7297 -0.7970 2.4103
3.7297 -0.7930 2.4073
3.7297 -0.7890 2.4103
3.7297 -0.7850 2.4103
3.7297 -0.7810 2.4103
3.7297 -0.7770 2.4103
3.7297 -0.7730 2.4103
3.7297 -0.7690 2.4103
3.7297 -0.7650 2.4133
3.7297 -0.7610 2.4134
3.7297 -0.7570 2.4134
3.7297 -0.7530 2.4134
3.7297 -0.7490 2.4134
3.7297 -0.7450 2.4134
3.7297 -0.7410 2.4134
3.7297 -0.7370 2.4164
3.7297 -0.7330 2.4164
3.7297 -0.7290 2.4164
3.7297 -0.7250 2.4194
3.7297 0.7230 2.4101
3.7297 0.7270 2.4041
3.7297 0.7310 2.4041
3.7297 0.7350 2.4041
3.7297 0.7390 2.4042
3.7297 0.7430 2.4072
3.7297 0.7470 2.4072
3.7297 0.7510 2.4102
3.7297 0.7550 2.4132
3.7297 0.7590 2.4132
3.7297 0.7630 2.4102
3.7297 0.7670 2.4102
3.7297 0.7710 2.4102
3.7297 0.7750 2.4042
3.7297 0.7790 2.4012
3.7297 0.7830 2.4012
3.7297 0.7870 2.4012
3.7297 0.7910 2.3982
3.7297 0.7950 2.3983
3.7297 0.7990 2.3983
3.7297 0.8030 2.3983
3.7297 0.8070 2.4013
3.7297 0.8110 2.4013
3.7297 0.8150 2.4013
3.7297 0.8190 2.4013
3.7297 0.8230 2.4013
3.7297 0.8270 2.3983
3.7297 0.8310 2.3983
3.7297 0.8350 2.3953
3.7297 0.8390 2.3923
3.7297 0.8430 2.3923
3.7297 0.8470 2.3894
3.7297 0.8510 2.3894
3.7297 0.8550 2.3864
3.7297 0.8590 2.3864
3.7297 0.8630 2.3834
3.7297 0.8670 2.3834
3.7297 0.8710 2.3804
3.7297 0.8750 2.3834
3.7297 0.8790 2.3804
3.7297 0.8830 2.3804
3.7297 0.8870 2.3774
3.7297 0.8910 2.3774
3.7297 0.8950 2.3774
3.7297 0.8990 2.3745
3.7297 0.9030 2.3715
3.7297 0.9070 2.3675
3.7297 0.9110 2.3645
3.7297 0.9150 2.3645
3.7297 0.9190 2.3615
3.7297 0.9230 2.3645
3.7297 0.9270 2.3645
3.7297 0.9310 2.3645
3.6887 -0.9690 2.3770
3.6887 -0.9650 2.3770
3.6887 -0.9610 2.3800
3.6887 -0.9570 2.3800
3.6887 -0.9530 2.3770
3.6887 -0.9490 2.3741
3.6887 -0.9450 2.3741
3.6887 -0.9410 2.3741
3.6887 -0.9370 2.3741
3.6887 -0.9330 2.3741
3.6887 -0.9290 2.3771
3.6887 -0.9250 2.3771
3.6887 -0.9210 2.3801
3.6887 -0.9170 2.3801
3.6887 -0.9130 2.3801
3.6887 -0.9090 2.3831
3.6887 -0.9050 2.3831
3.6887 -0.9010 2.3831
3.6887 -0.8970 2.3831
3.6887 -0.8930 2.3832
3.6887 -0.8890 2.3862
3.6887 -0.8850 2.3862
3.6887 -0.8810 2.3892
3.6887 -0.8770 2.3892
3.6887 -0.8730 2.3922
3.6887 -0.8690 2.3952
3.6887 -0.8650 2.3952
3.6887 -0.8610 2.3982
3.6887 -0.8570 2.3982
3.6887 -0.8530 2.3982
3.6887 -0.8490 2.4012
3.6887 -0.8450 2.4012
3.6887 -0.8410 2.4013
3.6887 -0.8370 2.3983
3.6887 -0.8330 2.4013
3.6887 -0.8290 2.4013
3.6887 -0.8250 2.4013
3.6887 -0.8210 2.4043
3.6887 -0.8170 2.4043
3.6887 -0.8130 2.4043
3.6887 -0.8090 2.4043
3.6887 -0.8050 2.4043
3.6887 -0.8010 2.4043
3.6887 -0.7970 2.4043
3.6887 -0.7930 2.4073
3.6887 -0.7890 2.4073
3.6887 -0.7850 2.4074
3.6887 -0.7810 2.4074
3.6887 -0.7770 2.4074
3.6887 -0.7730 2.4074
3.6887 -0.7690 2.4104
3.6887 -0.7650 2.4104
3.6887 -0.7610 2.4134
3.6887 0.7630 2.4102
3.6887 0.7670 2.4103
3.6887 0.7710 2.4073
3.6887 0.7750 2.4073
3.6887 0.7790 2.4073
3.6887 0.7830 2.4073
3.6887 0.7870 2.4103
3.6887 0.7910 2.4103
3.6887 0.7950 2.4103
3.6887 0.7990 2.4073
3.6887 0.8030 2.4073
3.6887 0.8070 2.4043
3.6887 0.8110 2.4013
3.6887 0.8150 2.4013
3.6887 0.8190 2.3983
3.6887 0.8230 2.3984
3.6887 0.8270 2.3984
3.6887 0.8310 2.3984
3.6887 0.8350 2.3984
3.6887 0.8390 2.3984
3.6887 0.8430 2.3984
3.6887 0.8470 2.3954
3.6887 0.8510 2.3954
3.6887 0.8550 2.3954
3.6887 0.8590 2.3954
3.6887 0.8630 2.3924
3.6887 0.8670 2.3954
3.6887 0.8710 2.3924
3.6887 0.8750 2.3895
3.6887 0.8790 2.3895
3.6887 0.8830 2.3895
3.6887 0.8870 2.3865
3.6887 0.8910 2.3835
3.6887 0.8950 2.3835
3.6887 0.8990 2.3805
3.6887 0.9030 2.3805
3.6887 0.9070 2.3745
3.6887 0.9110 2.3745
3.6887 0.9150 2.3715
3.6887 0.9190 2.3715
3.6887 0.9230 2.3675
3.6887 0.9270 2.3675
3.6887 0.9310 2.3646
3.6887 0.9350 2.3646
3.6887 0.9390 2.3646
3.6887 0.9430 2.3616
3.6887 0.9470 2.3586
3.6887 0.9510 2.3586
3.6887 0.9550 2.3586
3.6887 0.9590 2.3586
3.6887 0.9630 2.3586
3.6887 0.9670 2.3586
3.6887 0.9710 2.3586
3.6487 -0.9930 2.3680
3.6487 -0.9890 2.3680
3.6487 -0.9850 2.3640
3.6487 -0.9810 2.3610
3.6487 -0.9770 2.3610
3.6487 -0.9730 2.3611
3.6487 -0.9690 2.3611
3.6487 -0.9650 2.3611
3.6487 -0.9610 2.3641
3.6487 -0.9570 2.3641
3.6487 -0.9530 2.3641
3.6487 -0.9490 2.3681
3.6487 -0.9450 2.3681
3.6487 -0.9410 2.3681
3.6487 -0.9370 2.3711
3.6487 -0.9330 2.3711
3.6487 -0.9290 2.3741
3.6487 -0.9250 2.3741
3.6487 -0.9210 2.3771
3.6487 -0.9170 2.3772
3.6487 -0.9130 2.3772
3.6487 -0.9090 2.3772
3.6487 -0.9050 2.3772
3.6487 -0.9010 2.3802
3.6487 -0.8970 2.3802
3.6487 -0.8930 2.3832
3.6487 -0.8890 2.3862
3.6487 -0.8850 2.3862
3.6487 -0.8810 2.3892
3.6487 -0.8770 2.3922
3.6487 -0.8730 2.3952
3.6487 -0.8690 2.3952
3.6487 -0.8650 2.3983
3.6487 -0.8610 2.3983
3.6487 -0.8570 2.3983
3.6487 -0.8530 2.3983
3.6487 -0.8490 2.3983
3.6487 -0.8450 2.4013
3.6487 -0.8410 2.4013
3.6487 -0.8370 2.4043
3.6487 -0.8330 2.4043
3.6487 -0.8290 2.4073
3.6487 -0.8250 2.4073
3.6487 -0.8210 2.4073
3.6487 -0.8170 2.4073
3.6487 -0.8130 2.4073
3.6487 -0.8090 2.4044
3.6487 -0.8050 2.4074
3.6487 -0.8010 2.4044
3.6487 0.7990 2.4074
3.6487 0.8030 2.4014
3.6487 0.8070 2.3984
3.6487 0.8110 2.3984
3.6487 0.8150 2.3954
3.6487 0.8190 2.3954
3.6487 0.8230 2.3954
3.6487 0.8270 2.3954
3.6487 0.8310 2.3954
3.6487 0.8350 2.3954
3.6487 0.8390 2.3954
3.6487 0.8430 2.3954
3.6487 0.8470 2.3924
3.6487 0.8510 2.3925
3.6487 0.8550 2.3895
3.6487 0.8590 2.3895
3.6487 0.8630 2.3895
3.6487 0.8670 2.3895
3.6487 0.8710 2.3895
3.6487 0.8750 2.3865
3.6487 0.8790 2.3865
3.6487 0.8830 2.3835
3.6487 0.8870 2.3835
3.6487 0.8910 2.3835
3.6487 0.8950 2.3865
3.6487 0.8990 2.3835
3.6487 0.9030 2.3836
3.6487 0.9070 2.3836
3.6487 0.9110 2.3806
3.6487 0.9150 2.3806
3.6487 0.9190 2.3776
3.6487 0.9230 2.3746
3.6487 0.9270 2.3746
3.6487 0.9310 2.3716
3.6487 0.9350 2.3676
3.6487 0.9390 2.3676
3.6487 0.9430 2.3676
3.6487 0.9470 2.3646
3.6487 0.9510 2.3646
3.6487 0.9550 2.3646
3.6487 0.9590 2.3647
3.6487 0.9630 2.3617
3.6487 0.9670 2.3617
3.6487 0.9710 2.3587
3.6487 0.9750 2.3587
3.6487 0.9790 2.3557
3.6487 0.9830 2.3527
3.6487 0.9870 2.3497
3.6487 0.9910 2.3467
3.6487 0.9950 2.3467
3.6487 0.9990 2.3437
3.6487 1.0030 2.3437
3.6087 -1.0050 2.3490
3.6087 -1.0010 2.3520
3.6087 -0.9970 2.3521
3.6087 -0.9930 2.3551
3.6087 -0.9890 2.3581
3.6087 -0.9850 2.3581
3.6087 -0.9810 2.3611
3.6087 -0.9770 2.3611
3.6087 -0.9730 2.3611
3.6087 -0.9690 2.3641
3.6087 -0.9650 2.3681
3.6087 -0.9610 2.3681
3.6087 -0.9570 2.3681
3.6087 -0.9530 2.3741
3.6087 -0.9490 2.3741
3.6087 -0.9450 2.3771
3.6087 -0.9410 2.3772
3.6087 -0.9370 2.3772
3.6087 -0.9330 2.3802
3.6087 -0.9290 2.3802
3.6087 -0.9250 2.3802
3.6087 -0.9210 2.3802
3.6087 -0.9170 2.3802
3.6087 -0.9130 2.3832
3.6087 -0.9090 2.3862
3.6087 -0.9050 2.3862
3.6087 -0.9010 2.3892
3.6087 -0.8970 2.3892
3.6087 -0.8930 2.3922
3.6087 -0.8890 2.3923
3.6087 -0.8850 2.3923
3.6087 -0.8810 2.3923
3.6087 -0.8770 2.3953
3.6087 -0.8730 2.3983
3.6087 -0.8690 2.3983
3.6087 -0.8650 2.3983
3.6087 -0.8610 2.3983
3.6087 -0.8570 2.4013
3.6087 -0.8530 2.3983
3.6087 -0.8490 2.4013
3.6087 -0.8450 2.4013
3.6087 -0.8410 2.4013
3.6087 -0.8370 2.4014
3.6087 0.8390 2.3835
3.6087 0.8430 2.3835
3.6087 0.8470 2.3835
3.6087 0.8510 2.3835
3.6087 0.8550 2.3835
3.6087 0.8590 2.3835
3.6087 0.8630 2.3835
3.6087 0.8670 2.3865
3.6087 0.8710 2.3835
3.6087 0.8750 2.3835
3.6087 0.8790 2.3836
3.6087 0.8830 2.3836
3.6087 0.8870 2.3836
3.6087 0.8910 2.3836
3.6087 0.8950 2.3836
3.6087 0.8990 2.3836
3.6087 0.9030 2.3806
3.6087 0.9070 2.3806
3.6087 0.9110 2.3776
3.6087 0.9150 2.3776
3.6087 0.9190 2.3776
3.6087 0.9230 2.3746
3.6087 0.9270 2.3716
3.6087 0.9310 2.3716
3.6087 0.9350 2.3717
3.6087 0.9390 2.3717
3.6087 0.9430 2.3717
3.6087 0.9470 2.3717
3.6087 0.9510 2.3677
3.6087 0.9550 2.3677
3.6087 0.9590 2.3647
3.6087 0.9630 2.3617
3.6087 0.9670 2.3617
3.6087 0.9710 2.3617
3.6087 0.9750 2.3587
3.6087 0.9790 2.3557
3.6087 0.9830 2.3557
3.6087 0.9870 2.3528
3.6087 0.9910 2.3528
3.6087 0.9950 2.3528
3.6087 0.9990 2.3498
3.6087 1.0030 2.3468
3.6087 1.0070 2.3468
3.6087 1.0110 2.3438
3.6087 1.0150 2.3408
3.6087 1.0190 2.3378
3.6087 1.0230 2.3348
3.6087 1.0270 2.3348
3.6087 1.0310 2.3348
3.6087 1.0350 2.3348
3.5687 -1.0370 2.3160
3.5687 -1.0330 2.3220
3.5687 -1.0290 2.3280
3.5687 -1.0250 2.3370
3.5687 -1.0210 2.3431
3.5687 -1.0170 2.3461
3.5687 -1.0130 2.3521
3.5687 -1.0090 2.3521
3.5687 -1.0050 2.3551
3.5687 -1.0010 2.3551
3.5687 -0.9970 2.3551
3.5687 -0.9930 2.3581
3.5687 -0.9890 2.3581
3.5687 -0.9850 2.3611
3.5687 -0.9810 2.3611
3.5687 -0.9770 2.3641
3.5687 -0.9730 2.3641
3.5687 -0.9690 2.3641
3.5687 -0.9650 2.3682
3.5687 -0.9610 2.3682
3.5687 -0.9570 2.3712
3.5687 -0.9530 2.3712
3.5687 -0.9490 2.3742
3.5687 -0.9450 2.3742
3.5687 -0.9410 2.3742
3.5687 -0.9370 2.3742
3.5687 -0.9330 2.3742
3.5687 -0.9290 2.3772
3.5687 -0.9250 2.3772
3.5687 -0.9210 2.3772
3.5687 -0.9170 2.3802
3.5687 -0.9130 2.3803
3.5687 -0.9090 2.3803
3.5687 -0.9050 2.3833
3.5687 -0.9010 2.3833
3.5687 -0.8970 2.3833
3.5687 -0.8930 2.3833
3.5687 -0.8890 2.3863
3.5687 -0.8850 2.3863
3.5687 -0.8810 2.3893
3.5687 -0.8770 2.3893
3.5687 0.8750 2.3866
3.5687 0.8790 2.3836
3.5687 0.8830 2.3836
3.5687 0.8870 2.3806
3.5687 0.8910 2.3806
3.5687 0.8950 2.3776
3.5687 0.8990 2.3776
3.5687 0.9030 2.3776
3.5687 0.9070 2.3776
3.5687 0.9110 2.3777
3.5687 0.9150 2.3747
3.5687 0.9190 2.3747
3.5687 0.9230 2.3747
3.5687 0.9270 2.3747
3.5687 0.9310 2.3717
3.5687 0.9350 2.3717
3.5687 0.9390 2.3717
3.5687 0.9430 2.3677
3.5687 0.9470 2.3677
3.5687 0.9510 2.3677
3.5687 0.9550 2.3677
3.5687 0.9590 2.3647
3.5687 0.9630 2.3648
3.5687 0.9670 2.3648
3.5687 0.9710 2.3648
3.5687 0.9750 2.3618
3.5687 0.9790 2.3618
3.5687 0.9830 2.3618
3.5687 0.9870 2.3618
3.5687 0.9910 2.3588
3.5687 0.9950 2.3588
3.5687 0.9990 2.3558
3.5687 1.0030 2.3528
3.5687 1.0070 2.3528
3.5687 1.0110 2.3498
3.5687 1.0150 2.3499
3.5687 1.0190 2.3469
3.5687 1.0230 2.3469
3.5687 1.0270 2.3439
3.5687 1.0310 2.3439
3.5687 1.0350 2.3439
3.5687 1.0390 2.3409
3.5687 1.0430 2.3409
3.5687 1.0470 2.3379
3.5687 1.0510 2.3379
3.5687 1.0550 2.3379
3.5687 1.0590 2.3379
3.5287 -1.0570 2.3130
3.5287 -1.0530 2.3220
3.5287 -1.0490 2.3280
3.5287 -1.0450 2.3371
3.5287 -1.0410 2.3431
3.5287 -1.0370 2.3491
3.5287 -1.0330 2.3521
3.5287 -1.0290 2.3521
3.5287 -1.0250 2.3551
3.5287 -1.0210 2.3551
3.5287 -1.0170 2.3551
3.5287 -1.0130 2.3581
3.5287 -1.0090 2.3611
3.5287 -1.0050 2.3611
3.5287 -1.0010 2.3611
3.5287 -0.9970 2.3611
3.5287 -0.9930 2.3612
3.5287 -0.9890 2.3642
3.5287 -0.9850 2.3642
3.5287 -0.9810 2.3682
3.5287 -0.9770 2.3682
3.5287 -0.9730 2.3682
3.5287 -0.9690 2.3682
3.5287 -0.9650 2.3682
3.5287 -0.9610 2.3682
3.5287 -0.9570 2.3682
3.5287 -0.9530 2.3712
3.5287 -0.9490 2.3742
3.5287 -0.9450 2.3742
3.5287 -0.9410 2.3742
3.5287 -0.9370 2.3743
3.5287 -0.9330 2.3773
3.5287 -0.9290 2.3803
3.5287 -0.9250 2.3773
3.5287 -0.9210 2.3803
3.5287 -0.9170 2.3833
3.5287 -0.9130 2.3833
3.5287 -0.9090 2.3833
3.5287 -0.9050 2.3863
3.5287 -0.9010 2.3863
3.5287 -0.8970 2.3863
3.5287 0.8990 2.3837
3.5287 0.9030 2.3837
3.5287 0.9070 2.3777
3.5287 0.9110 2.3807
3.5287 0.9150 2.3777
3.5287 0.9190 2.3777
3.5287 0.9230 2.3747
3.5287 0.9270 2.3747
3.5287 0.9310 2.3747
3.5287 0.9350 2.3717
3.5287 0.9390 2.3718
3.5287 0.9430 2.3678
3.5287 0.9470 2.3678
3.5287 0.9510 2.3678
3.5287 0.9550 2.3678
3.5287 0.9590 2.3678
3.5287 0.9630 2.3648
3.5287 0.9670 2.3648
3.5287 0.9710 2.3648
3.5287 0.9750 2.3618
3.5287 0.9790 2.3618
3.5287 0.9830 2.3618
3.5287 0.9870 2.3588
3.5287 0.9910 2.3589
3.5287 0.9950 2.3589
3.5287 0.9990 2.3589
3.5287 1.0030 2.3589
3.5287 1.0070 2.3589
3.5287 1.0110 2.3559
3.5287 1.0150 2.3559
3.5287 1.0190 2.3559
3.5287 1.0230 2.3529
3.5287 1.0270 2.3529
3.5287 1.0310 2.3499
3.5287 1.0350 2.3529
3.5287 1.0390 2.3499
3.5287 1.0430 2.3499
3.5287 1.0470 2.3470
3.5287 1.0510 2.3440
3.5287 1.0550 2.3440
3.5287 1.0590 2.3410
3.5287 1.0630 2.3380
3.5287 1.0670 2.3380
3.5287 1.0710 2.3350
3.4877 -1.0850 2.3310
3.4877 -1.0810 2.3310
3.4877 -1.0770 2.3340
3.4877 -1.0730 2.3340
3.4877 -1.0690 2.3371
3.4877 -1.0650 2.3401
3.4877 -1.0610 2.3431
3.4877 -1.0570 2.3431
3.4877 -1.0530 2.3431
3.4877 -1.0490 2.3461
3.4877 -1.0450 2.3461
3.4877 -1.0410 2.3491
3.4877 -1.0370 2.3491
3.4877 -1.0330 2.3521
3.4877 -1.0290 2.3521
3.4877 -1.0250 2.3551
3.4877 -1.0210 2.3521
3.4877 -1.0170 2.3552
3.4877 -1.0130 2.3552
3.4877 -1.0090 2.3582
3.4877 -1.0050 2.3582
3.4877 -1.0010 2.3612
3.4877 -0.9970 2.3642
3.4877 -0.9930 2.3642
3.4877 -0.9890 2.3682
3.4877 -0.9850 2.3682
3.4877 -0.9810 2.3682
3.4877 -0.9770 2.3682
3.4877 -0.9730 2.3682
3.4877 -0.9690 2.3682
3.4877 -0.9650 2.3712
3.4877 -0.9610 2.3713
3.4877 -0.9570 2.3743
3.4877 -0.9530 2.3743
3.4877 -0.9490 2.3773
3.4877 -0.9450 2.3773
3.4877 -0.9410 2.3773
3.4877 -0.9370 2.3773
3.4877 -0.9330 2.3773
3.4877 -0.9290 2.3803
3.4877 -0.9250 2.3803
3.4877 -0.9210 2.3803
3.4877 0.9230 2.3678
3.4877 0.9270 2.3648
3.4877 0.9310 2.3648
3.4877 0.9350 2.3648
3.4877 0.9390 2.3618
3.4877 0.9430 2.3648
3.4877 0.9470 2.3648
3.4877 0.9510 2.3648
3.4877 0.9550 2.3678
3.4877 0.9590 2.3648
3.4877 0.9630 2.3648
3.4877 0.9670 2.3649
3.4877 0.9710 2.3619
3.4877 0.9750 2.3619
3.4877 0.9790 2.3619
3.4877 0.9830 2.3589
3.4877 0.9870 2.3589
3.4877 0.9910 2.3589
3.4877 0.9950 2.3559
3.4877 0.9990 2.3589
3.4877 1.0030 2.3559
3.4877 1.0070 2.3559
3.4877 1.0110 2.3559
3.4877 1.0150 2.3559
3.4877 1.0190 2.3529
3.4877 1.0230 2.3530
3.4877 1.0270 2.3530
3.4877 1.0310 2.3530
3.4877 1.0350 2.3530
3.4877 1.0390 2.3500
3.4877 1.0430 2.3470
3.4877 1.0470 2.3470
3.4877 1.0510 2.3290
3.4877 1.0550 2.3410
3.4877 1.0590 2.3350
3.4877 1.0630 2.3350
3.4877 1.0670 2.3350
3.4877 1.0710 2.3350
3.4877 1.0750 2.3321
3.4877 1.0790 2.3321
3.4877 1.0830 2.3321
3.4877 1.0870 2.3291
3.4477 -1.0930 2.3311
3.4477 -1.0890 2.3341
3.4477 -1.0850 2.3371
3.4477 -1.0810 2.3401
3.4477 -1.0770 2.3401
3.4477 -1.0730 2.3401
3.4477 -1.0690 2.3431
3.4477 -1.0650 2.3431
3.4477 -1.0610 2.3461
3.4477 -1.0570 2.3491
3.4477 -1.0530 2.3491
3.4477 -1.0490 2.3521
3.4477 -1.0450 2.3521
3.4477 -1.0410 2.3552
3.4477 -1.0370 2.3552
3.4477 -1.0330 2.3552
3.4477 -1.0290 2.3582
3.4477 -1.0250 2.3582
3.4477 -1.0210 2.3582
3.4477 -1.0170 2.3582
3.4477 -1.0130 2.3612
3.4477 -1.0090 2.3612
3.4477 -1.0050 2.3612
3.4477 -1.0010 2.3612
3.4477 -0.9970 2.3612
3.4477 -0.9930 2.3612
3.4477 -0.9890 2.3642
3.4477 -0.9850 2.3643
3.4477 -0.9810 2.3613
3.4477 -0.9770 2.3643
3.4477 -0.9730 2.3643
3.4477 -0.9690 2.3683
3.4477 -0.9650 2.3683
3.4477 -0.9610 2.3683
3.4477 -0.9570 2.3683
3.4477 -0.9530 2.3713
3.4477 -0.9490 2.3713
3.4477 -0.9450 2.3743
3.4477 0.9430 2.3649
3.4477 0.9470 2.3649
3.4477 0.9510 2.3649
3.4477 0.9550 2.3649
3.4477 0.9590 2.3649
3.4477 0.9630 2.3679
3.4477 0.9670 2.3679
3.4477 0.9710 2.3649
3.4477 0.9750 2.3649
3.4477 0.9790 2.3649
3.4477 0.9830 2.3649
3.4477 0.9870 2.3619
3.4477 0.9910 2.3619
3.4477 0.9950 2.3589
3.4477 0.9990 2.3590
3.4477 1.0030 2.3560
3.4477 1.0070 2.3530
3.4477 1.0110 2.3530
3.4477 1.0150 2.3560
3.4477 1.0190 2.3560
3.4477 1.0230 2.3530
3.4477 1.0270 2.3530
3.4477 1.0310 2.3530
3.4477 1.0350 2.3530
3.4477 1.0390 2.3530
3.4477 1.0430 2.3500
3.4477 1.0470 2.3500
3.4477 1.0510 2.3501
3.4477 1.0550 2.3471
3.4477 1.0590 2.3471
3.4477 1.0630 2.3471
3.4477 1.0670 2.3441
3.4477 1.0710 2.3441
3.4477 1.0750 2.3411
3.4477 1.0790 2.3381
3.4477 1.0830 2.3381
3.4477 1.0870 2.3351
3.4477 1.0910 2.3321
3.4477 1.0950 2.3291
3.4477 1.0990 2.3261
3.4477 1.1030 2.3262
3.4477 1.1070 2.3262
3.4077 -1.1090 2.3311
3.4077 -1.1050 2.3311
3.4077 -1.1010 2.3341
3.4077 -1.0970 2.3341
3.4077 -1.0930 2.3371
3.4077 -1.0890 2.3371
3.4077 -1.0850 2.3401
3.4077 -1.0810 2.3431
3.4077 -1.0770 2.3431
3.4077 -1.0730 2.3431
3.4077 -1.0690 2.3461
3.4077 -1.0650 2.3462
3.4077 -1.0610 2.3462
3.4077 -1.0570 2.3492
3.4077 -1.0530 2.3492
3.4077 -1.0490 2.3492
3.4077 -1.0450 2.3522
3.4077 -1.0410 2.3522
3.4077 -1.0370 2.3522
3.4077 -1.0330 2.3552
3.4077 -1.0290 2.3582
3.4077 -1.0250 2.3552
3.4077 -1.0210 2.3582
3.4077 -1.0170 2.3582
3.4077 -1.0130 2.3612
3.4077 -1.0090 2.3583
3.4077 -1.0050 2.3613
3.4077 -1.0010 2.3643
3.4077 -0.9970 2.3643
3.4077 -0.9930 2.3643
3.4077 -0.9890 2.3643
3.4077 -0.9850 2.3643
3.4077 -0.9810 2.3643
3.4077 -0.9770 2.3643
3.4077 -0.9730 2.3643
3.4077 -0.9690 2.3683
3.4077 0.9670 2.3589
3.4077 0.9710 2.3590
3.4077 0.9750 2.3560
3.4077 0.9790 2.3560
3.4077 0.9830 2.3560
3.4077 0.9870 2.3560
3.4077 0.9910 2.3530
3.4077 0.9950 2.3560
3.4077 0.9990 2.3560
3.4077 1.0030 2.3560
3.4077 1.0070 2.3560
3.4077 1.0110 2.3560
3.4077 1.0150 2.3530
3.4077 1.0190 2.3560
3.4077 1.0230 2.3530
3.4077 1.0270 2.3531
3.4077 1.0310 2.3501
3.4077 1.0350 2.3501
3.4077 1.0390 2.3471
3.4077 1.0430 2.3471
3.4077 1.0470 2.3441
3.4077 1.0510 2.3441
3.4077 1.0550 2.3411
3.4077 1.0590 2.3381
3.4077 1.0630 2.3411
3.4077 1.0670 2.3381
3.4077 1.0710 2.3381
3.4077 1.0750 2.3381
3.4077 1.0790 2.3382
3.4077 1.0830 2.3352
3.4077 1.0870 2.3352
3.4077 1.0910 2.3352
3.4077 1.0950 2.3322
3.4077 1.0990 2.3322
3.4077 1.1030 2.3322
3.4077 1.1070 2.3292
3.4077 1.1110 2.3292
3.4077 1.1150 2.3262
3.4077 1.1190 2.3262
3.4077 1.1230 2.3232
3.4077 1.1270 2.3202
3.4077 1.1310 2.3202
3.4077 1.1350 2.3173
3.4077 1.1390 2.3173
3.3677 -1.1250 2.3221
3.3677 -1.1210 2.3251
3.3677 -1.1170 2.3251
3.3677 -1.1130 2.3251
3.3677 -1.1090 2.3281
3.3677 -1.1050 2.3311
3.3677 -1.1010 2.3311
3.3677 -1.0970 2.3311
3.3677 -1.0930 2.3341
3.3677 -1.0890 2.3372
3.3677 -1.0850 2.3372
3.3677 -1.0810 2.3402
3.3677 -1.0770 2.3402
3.3677 -1.0730 2.3432
3.3677 -1.0690 2.3432
3.3677 -1.0650 2.3462
3.3677 -1.0610 2.3462
3.3677 -1.0570 2.3492
3.3677 -1.0530 2.3492
3.3677 -1.0490 2.3522
3.3677 -1.0450 2.3522
3.3677 -1.0410 2.3522
3.3677 -1.0370 2.3523
3.3677 -1.0330 2.3523
3.3677 -1.0290 2.3523
3.3677 -1.0250 2.3583
3.3677 -1.0210 2.3553
3.3677 -1.0170 2.3583
3.3677 -1.0130 2.3583
3.3677 -1.0090 2.3613
3.3677 -1.0050 2.3583
3.3677 -1.0010 2.3613
3.3677 -0.9970 2.3613
3.3677 -0.9930 2.3613
3.3677 -0.9890 2.3643
3.3677 0.9910 2.3620
3.3677 0.9950 2.3620
3.3677 0.9990 2.3590
3.3677 1.0030 2.3591
3.3677 1.0070 2.3561
3.3677 1.0110 2.3561
3.3677 1.0150 2.3531
3.3677 1.0190 2.3531
3.3677 1.0230 2.3531
3.3677 1.0270 2.3531
3.3677 1.0310 2.3501
3.3677 1.0350 2.3501
3.3677 1.0390 2.3471
3.3677 1.0430 2.3471
3.3677 1.0470 2.3471
3.3677 1.0510 2.3471
3.3677 1.0550 2.3442
3.3677 1.0590 2.3442
3.3677 1.0630 2.3412
3.3677 1.0670 2.3382
3.3677 1.0710 2.3382
3.3677 1.0750 2.3382
3.3677 1.0790 2.3352
3.3677 1.0830 2.3352
3.3677 1.0870 2.3322
3.3677 1.0910 2.3322
3.3677 1.0950 2.3292
3.3677 1.0990 2.3292
3.3677 1.1030 2.3292
3.3677 1.1070 2.3262
3.3677 1.1110 2.3233
3.3677 1.1150 2.3233
3.3677 1.1190 2.3203
3.3677 1.1230 2.3203
3.3677 1.1270 2.3203
3.3677 1.1310 2.3203
3.3677 1.1350 2.3203
3.3677 1.1390 2.3173
3.3677 1.1430 2.3173
3.3677 1.1470 2.3143
3.3677 1.1510 2.3143
3.3677 1.1550 2.3103
3.3677 1.1590 2.3103
3.3277 -1.1370 2.3251
3.3277 -1.1330 2.3251
3.3277 -1.1290 2.3281
3.3277 -1.1250 2.3281
3.3277 -1.1210 2.3311
3.3277 -1.1170 2.3311
3.3277 -1.1130 2.3312
3.3277 -1.1090 2.3312
3.3277 -1.1050 2.3342
3.3277 -1.1010 2.3342
3.3277 -1.0970 2.3372
3.3277 -1.0930 2.3372
3.3277 -1.0890 2.3402
3.3277 -1.0850 2.3402
3.3277 -1.0810 2.3402
3.3277 -1.0770 2.3432
3.3277 -1.0730 2.3432
3.3277 -1.0690 2.3432
3.3277 -1.0650 2.3432
3.3277 -1.0610 2.3463
3.3277 -1.0570 2.3463
3.3277 -1.0530 2.3493
3.3277 -1.0490 2.3493
3.3277 -1.0450 2.3493
3.3277 -1.0410 2.3493
3.3277 -1.0370 2.3493
3.3277 -1.0330 2.3523
3.3277 -1.0290 2.3523
3.3277 -1.0250 2.3553
3.3277 -1.0210 2.3553
3.3277 -1.0170 2.3553
3.3277 -1.0130 2.3583
3.3277 -1.0090 2.3583
3.3277 -1.0050 2.3584
3.3277 1.0110 2.3651
3.3277 1.0150 2.3651
3.3277 1.0190 2.3621
3.3277 1.0230 2.3591
3.3277 1.0270 2.3591
3.3277 1.0310 2.3562
3.3277 1.0350 2.3532
3.3277 1.0390 2.3502
3.3277 1.0430 2.3472
3.3277 1.0470 2.3472
3.3277 1.0510 2.3442
3.3277 1.0550 2.3412
3.3277 1.0590 2.3412
3.3277 1.0630 2.3382
3.3277 1.0670 2.3352
3.3277 1.0710 2.3352
3.3277 1.0750 2.3352
3.3277 1.0790 2.3352
3.3277 1.0830 2.3322
3.3277 1.0870 2.3323
3.3277 1.0910 2.3323
3.3277 1.0950 2.3293
3.3277 1.0990 2.3293
3.3277 1.1030 2.3293
3.3277 1.1070 2.3293
3.3277 1.1110 2.3263
3.3277 1.1150 2.3263
3.3277 1.1190 2.3263
3.3277 1.1230 2.3233
3.3277 1.1270 2.3233
3.3277 1.1310 2.3203
3.3277 1.1350 2.3203
3.3277 1.1390 2.3174
3.3277 1.1430 2.3144
3.3277 1.1470 2.3144
3.3277 1.1510 2.3144
3.3277 1.1550 2.3144
3.3277 1.1590 2.3104
3.3277 1.1630 2.3104
3.2867 -1.1410 2.3191
3.2867 -1.1370 2.3222
3.2867 -1.1330 2.3222
3.2867 -1.1290 2.3222
3.2867 -1.1250 2.3252
3.2867 -1.1210 2.3252
3.2867 -1.1170 2.3282
3.2867 -1.1130 2.3282
3.2867 -1.1090 2.3312
3.2867 -1.1050 2.3312
3.2867 -1.1010 2.3342
3.2867 -1.0970 2.3342
3.2867 -1.0930 2.3372
3.2867 -1.0890 2.3372
3.2867 -1.0850 2.3373
3.2867 -1.0810 2.3373
3.2867 -1.0770 2.3403
3.2867 -1.0730 2.3403
3.2867 -1.0690 2.3403
3.2867 -1.0650 2.3433
3.2867 -1.0610 2.3433
3.2867 -1.0570 2.3463
3.2867 -1.0530 2.3463
3.2867 -1.0490 2.3493
3.2867 -1.0450 2.3493
3.2867 -1.0410 2.3493
3.2867 -1.0370 2.3493
3.2867 -1.0330 2.3523
3.2867 -1.0290 2.3554
3.2867 -1.0250 2.3554
3.2867 -1.0210 2.3584
3.2867 1.0350 2.3502
3.2867 1.0390 2.3502
3.2867 1.0430 2.3502
3.2867 1.0470 2.3472
3.2867 1.0510 2.3472
3.2867 1.0550 2.3472
3.2867 1.0590 2.3443
3.2867 1.0630 2.3443
3.2867 1.0670 2.3443
3.2867 1.0710 2.3443
3.2867 1.0750 2.3413
3.2867 1.0790 2.3413
3.2867 1.0830 2.3383
3.2867 1.0870 2.3383
3.2867 1.0910 2.3413
3.2867 1.0950 2.3383
3.2867 1.0990 2.3353
3.2867 1.1030 2.3353
3.2867 1.1070 2.3353
3.2867 1.1110 2.3353
3.2867 1.1150 2.3324
3.2867 1.1190 2.3324
3.2867 1.1230 2.3294
3.2867 1.1270 2.3294
3.2867 1.1310 2.3264
3.2867 1.1350 2.3234
3.2867 1.1390 2.3234
3.2867 1.1430 2.3204
3.2867 1.1470 2.3234
3.2867 1.1510 2.3204
3.2867 1.1550 2.3204
3.2867 1.1590 2.3174
3.2867 1.1630 2.3174
3.2867 1.1670 2.3145
3.2867 1.1710 2.3105
3.2867 1.1750 2.3075
3.2867 1.1790 2.3045
3.2867 1.1830 2.3015
3.2467 -1.1610 2.3162
3.2467 -1.1570 2.3162
3.2467 -1.1530 2.3192
3.2467 -1.1490 2.3192
3.2467 -1.1450 2.3192
3.2467 -1.1410 2.3192
3.2467 -1.1370 2.3222
3.2467 -1.1330 2.3222
3.2467 -1.1290 2.3222
3.2467 -1.1250 2.3252
3.2467 -1.1210 2.3282
3.2467 -1.1170 2.3312
3.2467 -1.1130 2.3312
3.2467 -1.1090 2.3343
3.2467 -1.1050 2.3343
3.2467 -1.1010 2.3343
3.2467 -1.0970 2.3343
3.2467 -1.0930 2.3343
3.2467 -1.0890 2.3343
3.2467 -1.0850 2.3373
3.2467 -1.0810 2.3373
3.2467 -1.0770 2.3403
3.2467 -1.0730 2.3433
3.2467 -1.0690 2.3463
3.2467 -1.0650 2.3463
3.2467 -1.0610 2.3463
3.2467 -1.0570 2.3494
3.2467 -1.0530 2.3494
3.2467 -1.0490 2.3464
3.2467 -1.0450 2.3464
3.2467 -1.0410 2.3494
3.2467 -1.0370 2.3494
3.2467 -1.0330 2.3524
3.2467 1.0470 2.3443
3.2467 1.0510 2.3443
3.2467 1.0550 2.3443
3.2467 1.0590 2.3413
3.2467 1.0630 2.3413
3.2467 1.0670 2.3383
3.2467 1.0710 2.3383
3.2467 1.0750 2.3353
3.2467 1.0790 2.3353
3.2467 1.0830 2.3353
3.2467 1.0870 2.3323
3.2467 1.0910 2.3324
3.2467 1.0950 2.3324
3.2467 1.0990 2.3294
3.2467 1.1030 2.3294
3.2467 1.1070 2.3294
3.2467 1.1110 2.3264
3.2467 1.1150 2.3234
3.2467 1.1190 2.3234
3.2467 1.1230 2.3234
3.2467 1.1270 2.3204
3.2467 1.1310 2.3204
3.2467 1.1350 2.3174
3.2467 1.1390 2.3174
3.2467 1.1430 2.3175
3.2467 1.1470 2.3145
3.2467 1.1510 2.3145
3.2467 1.1550 2.3145
3.2467 1.1590 2.3145
3.2467 1.1630 2.3145
3.2467 1.1670 2.3105
3.2467 1.1710 2.3105
3.2467 1.1750 2.3075
3.2467 1.1790 2.3075
3.2467 1.1830 2.3045
3.2467 1.1870 2.3045
3.1267 -1.1890 2.3062
3.1267 -1.1850 2.3062
3.1267 -1.1810 2.3063
3.1267 -1.1770 2.3063
3.1267 -1.1730 2.3103
3.1267 -1.1690 2.3103
3.1267 -1.1650 2.3133
3.1267 -1.1610 2.3133
3.1267 -1.1570 2.3163
3.1267 -1.1530 2.3163
3.1267 -1.1490 2.3193
3.1267 -1.1450 2.3193
3.1267 -1.1410 2.3223
3.1267 -1.1370 2.3253
3.1267 -1.1330 2.3253
3.1267 -1.1290 2.3284
3.1267 -1.1250 2.3314
3.1267 -1.1210 2.3344
3.1267 -1.1170 2.3344
3.1267 -1.1130 2.3344
3.1267 -1.1090 2.3344
3.1267 -1.1050 2.3344
3.1267 -1.1010 2.3344
3.1267 -1.0970 2.3344
3.1267 -1.0930 2.3344
3.1267 -1.0890 2.3374
3.1267 -1.0850 2.3374
3.1267 -1.0810 2.3374
3.1267 -1.0770 2.3404
3.1267 -1.0730 2.3405
3.1267 1.0710 2.3175
3.1267 1.0750 2.3205
3.1267 1.0790 2.3235
3.1267 1.0830 2.3265
3.1267 1.0870 2.3295
3.1267 1.0910 2.3325
3.1267 1.0950 2.3325
3.1267 1.0990 2.3325
3.1267 1.1030 2.3325
3.1267 1.1070 2.3325
3.1267 1.1110 2.3295
3.1267 1.1150 2.3295
3.1267 1.1190 2.3265
3.1267 1.1230 2.3266
3.1267 1.1270 2.3266
3.1267 1.1310 2.3236
3.1267 1.1350 2.3236
3.1267 1.1390 2.3206
3.1267 1.1430 2.3206
3.1267 1.1470 2.3176
3.1267 1.1510 2.3176
3.1267 1.1550 2.3146
3.1267 1.1590 2.3106
3.1267 1.1630 2.3106
3.1267 1.1670 2.3106
3.1267 1.1710 2.3076
3.1267 1.1750 2.3046
3.1267 1.1790 2.3077
3.1267 1.1830 2.3047
3.1267 1.1870 2.3047
3.1267 1.1910 2.3077
3.1267 1.1950 2.3047
3.1267 1.1990 2.3047
3.1267 1.2030 2.3047
3.1267 1.2070 2.3047
3.1267 1.2110 2.3017
3.1267 1.2150 2.2987
3.1267 1.2190 2.2957
3.1267 1.2230 2.2957
2.9267 -1.2210 2.2944
2.9267 -1.2170 2.2944
2.9267 -1.2130 2.2974
2.9267 -1.2090 2.3004
2.9267 -1.2050 2.3004
2.9267 -1.2010 2.2974
2.9267 -1.1970 2.3005
2.9267 -1.1930 2.3035
2.9267 -1.1890 2.3035
2.9267 -1.1850 2.3065
2.9267 -1.1810 2.3105
2.9267 -1.1770 2.3105
2.9267 -1.1730 2.3135
2.9267 -1.1690 2.3135
2.9267 -1.1650 2.3165
2.9267 -1.1610 2.3165
2.9267 -1.1570 2.3195
2.9267 -1.1530 2.3195
2.9267 -1.1490 2.3225
2.9267 -1.1450 2.3225
2.9267 -1.1410 2.3226
2.9267 -1.1370 2.3256
2.9267 -1.1330 2.3286
2.9267 -1.1290 2.3286
2.9267 -1.1250 2.3316
2.9267 -1.1210 2.3316
2.9267 -1.1170 2.3346
2.9267 -1.1130 2.3346
2.9267 1.1110 2.3148
2.9267 1.1150 2.3178
2.9267 1.1190 2.3208
2.9267 1.1230 2.3208
2.9267 1.1270 2.3238
2.9267 1.1310 2.3208
2.9267 1.1350 2.3208
2.9267 1.1390 2.3208
2.9267 1.1430 2.3208
2.9267 1.1470 2.3178
2.9267 1.1510 2.3178
2.9267 1.1550 2.3178
2.9267 1.1590 2.3148
2.9267 1.1630 2.3109
2.9267 1.1670 2.3109
2.9267 1.1710 2.3109
2.9267 1.1750 2.3079
2.9267 1.1790 2.3079
2.9267 1.1830 2.3079
2.9267 1.1870 2.3049
2.9267 1.1910 2.3049
2.9267 1.1950 2.3049
2.9267 1.1990 2.3019
2.9267 1.2030 2.2989
2.9267 1.2070 2.2989
2.9267 1.2110 2.2989
2.9267 1.2150 2.2960
2.9267 1.2190 2.2960
2.9267 1.2230 2.2960
2.9267 1.2270 2.2960
2.9267 1.2310 2.2960
2.9267 1.2350 2.2930
2.9267 1.2390 2.2900
2.9267 1.2430 2.2900
2.9267 1.2470 2.2870
2.9267 1.2510 2.2840
2.7267 -1.2450 2.2946
2.7267 -1.2410 2.2976
2.7267 -1.2370 2.2976
2.7267 -1.2330 2.2976
2.7267 -1.2290 2.2976
2.7267 -1.2250 2.3006
2.7267 -1.2210 2.3006
2.7267 -1.2170 2.3006
2.7267 -1.2130 2.3036
2.7267 -1.2090 2.3037
2.7267 -1.2050 2.3067
2.7267 -1.2010 2.3107
2.7267 -1.1970 2.3137
2.7267 -1.1930 2.3167
2.7267 -1.1890 2.3167
2.7267 -1.1850 2.3197
2.7267 -1.1810 2.3197
2.7267 -1.1770 2.3227
2.7267 -1.1730 2.3227
2.7267 -1.1690 2.3227
2.7267 -1.1650 2.3227
2.7267 -1.1610 2.3257
2.7267 -1.1570 2.3258
2.7267 -1.1530 2.3258
2.7267 -1.1490 2.3288
2.7267 -1.1450 2.3288
2.7267 -1.1410 2.3318
2.7267 -1.1370 2.3318
2.7267 -1.1330 2.3318
2.7267 -1.1290 2.3318
2.7267 -1.1250 2.3318
2.7267 -1.1210 2.3318
2.7267 1.1230 2.3180
2.7267 1.1270 2.3210
2.7267 1.1310 2.3210
2.7267 1.1350 2.3210
2.7267 1.1390 2.3180
2.7267 1.1430 2.3180
2.7267 1.1470 2.3181
2.7267 1.1510 2.3151
2.7267 1.1550 2.3151
2.7267 1.1590 2.3111
2.7267 1.1630 2.3111
2.7267 1.1670 2.3111
2.7267 1.1710 2.3081
2.7267 1.1750 2.3081
2.7267 1.1790 2.3081
2.7267 1.1830 2.3051
2.7267 1.1870 2.3021
2.7267 1.1910 2.3021
2.7267 1.1950 2.3021
2.7267 1.1990 2.2991
2.7267 1.2030 2.2962
2.7267 1.2070 2.2962
2.7267 1.2110 2.2962
2.7267 1.2150 2.2932
2.7267 1.2190 2.2932
2.7267 1.2230 2.2932
2.7267 1.2270 2.2932
2.7267 1.2310 2.2932
2.7267 1.2350 2.2932
2.7267 1.2390 2.2902
2.7267 1.2430 2.2902
2.7267 1.2470 2.2872
2.7267 1.2510 2.2872
2.7267 1.2550 2.2843
2.5257 -1.2370 2.2978
2.5257 -1.2330 2.2978
2.5257 -1.2290 2.2978
2.5257 -1.2250 2.2979
2.5257 -1.2210 2.2979
2.5257 -1.2170 2.2979
2.5257 -1.2130 2.2979
2.5257 -1.2090 2.2979
2.5257 -1.2050 2.2979
2.5257 -1.2010 2.3009
2.5257 -1.1970 2.3009
2.5257 -1.1930 2.3009
2.5257 -1.1890 2.3039
2.5257 -1.1850 2.3039
2.5257 -1.1810 2.3039
2.5257 -1.1770 2.3069
2.5257 -1.1730 2.3070
2.5257 -1.1690 2.3110
2.5257 -1.1650 2.3140
2.5257 -1.1610 2.3140
2.5257 -1.1570 2.3170
2.5257 -1.1530 2.3200
2.5257 -1.1490 2.3200
2.5257 -1.1450 2.3230
2.5257 -1.1410 2.3230
2.5257 -1.1370 2.3260
2.5257 -1.1330 2.3260
2.5257 -1.1290 2.3260
2.5257 -1.1250 2.3260
2.5257 -1.1210 2.3260
2.5257 1.1230 2.3052
2.5257 1.1270 2.3052
2.5257 1.1310 2.3052
2.5257 1.1350 2.3053
2.5257 1.1390 2.3083
2.5257 1.1430 2.3083
2.5257 1.1470 2.3113
2.5257 1.1510 2.3113
2.5257 1.1550 2.3113
2.5257 1.1590 2.3113
2.5257 1.1630 2.3113
2.5257 1.1670 2.3113
2.5257 1.1710 2.3083
2.5257 1.1750 2.3083
2.5257 1.1790 2.3053
2.5257 1.1830 2.3053
2.5257 1.1870 2.3054
2.5257 1.1910 2.3024
2.5257 1.1950 2.3024
2.5257 1.1990 2.2964
2.5257 1.2030 2.2964
2.5257 1.2070 2.2964
2.5257 1.2110 2.2934
2.5257 1.2150 2.2964
2.5257 1.2190 2.2934
2.5257 1.2230 2.2934
2.5257 1.2270 2.2934
2.5257 1.2310 2.2934
2.5257 1.2350 2.2934
2.5257 1.2390 2.2904
2.5257 1.2430 2.2905
2.5257 1.2470 2.2875
2.5257 1.2510 2.2875
2.5257 1.2550 2.2815
2.5257 1.2590 2.2815
2.5257 1.2630 2.2785
2.3257 -1.2370 2.2921
2.3257 -1.2330 2.2921
2.3257 -1.2290 2.2981
2.3257 -1.2250 2.2891
2.3257 -1.2210 2.3011
2.3257 -1.2170 2.3011
2.3257 -1.2130 2.3041
2.3257 -1.2090 2.2981
2.3257 -1.2050 2.3011
2.3257 -1.2010 2.3011
2.3257 -1.1970 2.3041
2.3257 -1.1930 2.3041
2.3257 -1.1890 2.3071
2.3257 -1.1850 2.3072
2.3257 -1.1810 2.3112
2.3257 -1.1770 2.3112
2.3257 -1.1730 2.3112
2.3257 -1.1690 2.3142
2.3257 -1.1650 2.3142
2.3257 -1.1610 2.3142
2.3257 -1.1570 2.3172
2.3257 -1.1530 2.3202
2.3257 -1.1490 2.3232
2.3257 -1.1450 2.3232
2.3257 -1.1410 2.3232
2.3257 -1.1370 2.3262
2.3257 -1.1330 2.3263
2.3257 -1.1290 2.3263
2.3257 -1.1250 2.3263
2.3257 -1.1210 2.3323
2.3257 1.1230 2.3215
2.3257 1.1270 2.3215
2.3257 1.1310 2.3215
2.3257 1.1350 2.3215
2.3257 1.1390 2.3215
2.3257 1.1430 2.3185
2.3257 1.1470 2.3055
